-5.302829742431641 -71.74763488769531 21.12444305419922
-5.302822113037109 -71.74771118164062 18.66672706604004
-5.302825927734375 -71.7478256225586 16.24913787841797
-5.302829742431641 -71.7476806640625 13.86594009399414
-5.302833557128906 -71.74768829345703 11.511728286743164
-5.302829742431641 -71.7476806640625 9.181344985961914
-5.302822113037109 -71.7478256225586 6.869781970977783
-5.302822113037109 -71.74777221679688 4.572131156921387
-5.302825927734375 -71.74774169921875 2.2837371826171875
-5.302825927734375 -71.74777221679688 -1.239776611328125e-05
0.0 0.0 0.0
0.0 0.0 0.0
0.0 0.0 0.0
0.0 0.0 0.0
0.0 0.0 0.0
0.0 0.0 0.0
0.0 0.0 0.0
0.0 0.0 0.0
0.0 0.0 0.0
0.0 0.0 0.0
0.0 0.0 0.0
0.0 0.0 0.0
5.901679992675781 87.1348876953125 34.96347427368164
5.4013824462890625 79.74842834472656 34.981483459472656
4.9647979736328125 73.30235290527344 34.972023010253906
4.584312438964844 67.68482208251953 34.97390365600586
4.248744964599609 62.73033142089844 34.98218536376953
3.9482593536376953 58.293724060058594 34.98059844970703
3.677318572998047 54.2935905456543 34.97230529785156
3.4321441650390625 50.673683166503906 34.966209411621094
3.2086315155029297 47.37367630004883 34.96041488647461
3.0036983489990234 44.34800720214844 34.95556640625
2.814981460571289 41.561763763427734 34.95435333251953
2.6376285552978516 38.94316864013672 34.9212760925293
2.474489212036133 36.53444290161133 34.91534423828125
2.322460174560547 34.289852142333984 34.918094635009766
2.179560661315918 32.18007278442383 34.91974639892578
2.0448131561279297 30.190458297729492 34.921470642089844
1.9172496795654297 28.307170867919922 34.92310333251953
1.7960968017578125 26.5184326171875 34.924652099609375
1.6806249618530273 24.81348991394043 34.92550277709961
1.5699996948242188 23.180234909057617 34.9209098815918
1.463994026184082 21.61505889892578 34.91666030883789
1.3623390197753906 20.114181518554688 34.91861343383789
1.264389991760254 18.668094635009766 34.92222595214844
1.1695995330810547 17.268470764160156 34.92246627807617
1.0777826309204102 15.912900924682617 34.924224853515625
0.9885878562927246 14.595935821533203 34.92593765258789
0.9016985893249512 13.313018798828125 34.926612854003906
0.8168797492980957 12.060800552368164 34.927268981933594
0.7339105606079102 10.835775375366211 34.92790985107422
0.6525583267211914 9.634634017944336 34.92853927612305
0.5726146697998047 8.454350471496582 34.92915725708008
0.4938945770263672 7.292064189910889 34.92976760864258
0.41622233390808105 6.145313262939453 34.93163299560547
0.33940720558166504 5.01120138168335 34.93357467651367
0.2632790803909302 3.8872315883636475 34.93501663208008
0.18768393993377686 2.7710459232330322 34.93589401245117
0.11245870590209961 1.6604349613189697 34.936767578125
0.03745880722999573 0.5531096458435059 34.93763732910156
-0.03747186064720154 -0.5532321929931641 34.94432830810547
-0.11249083280563354 -1.6608792543411255 34.94607925415039
-0.18774819374084473 -2.772005796432495 34.94783020019531
-0.2633918523788452 -3.8888320922851562 34.94930648803711
-0.33957743644714355 -5.013674259185791 34.9506950378418
-0.41646838188171387 -6.148934364318848 34.95225524902344
-0.49423837661743164 -7.297183036804199 34.95424270629883
-0.5730600357055664 -8.460912704467773 34.95625305175781
-0.6531119346618652 -9.642842292785645 34.9582633972168
-0.7345905303955078 -10.8458251953125 34.96030044555664
-0.8177027702331543 -12.072945594787598 34.96237564086914
-0.9026765823364258 -13.327475547790527 34.964500427246094
-0.9897356033325195 -14.612844467163086 34.96638870239258
-1.0790858268737793 -15.932120323181152 34.96639633178711
-1.1710748672485352 -17.290218353271484 34.96639633178711
-1.2659950256347656 -18.691720962524414 34.966400146484375
-1.3642091751098633 -20.14171600341797 34.96640396118164
-1.4662799835205078 -21.648754119873047 34.97106170654297
-1.5722618103027344 -23.21354103088379 34.971031188964844
-1.682821273803711 -24.845848083496094 34.97103500366211
-1.798487663269043 -26.553668975830078 34.97105026245117
-1.9198875427246094 -28.3460693359375 34.971065521240234
-2.0477123260498047 -30.23334503173828 34.97108459472656
-2.1827821731567383 -32.22742462158203 34.971099853515625
-2.3247413635253906 -34.32347869873047 34.95233917236328
-2.47711181640625 -36.573184967041016 34.95233917236328
-2.6304283142089844 -38.83677673339844 34.82583999633789
-2.8046321868896484 -41.40894317626953 34.82583999633789
-2.5046424865722656 -36.979591369628906 29.147686004638672
-3.196470260620117 -47.19410705566406 34.827877044677734
-3.432720184326172 -50.68217468261719 34.97205352783203
-3.6716480255126953 -54.209835052490234 34.918365478515625
-3.9469032287597656 -58.27368927001953 34.96855926513672
-4.225238800048828 -62.38325119018555 34.788639068603516
-4.5678253173828125 -67.4412612915039 34.848018646240234
-4.6438446044921875 -68.56356811523438 32.7111701965332
-4.802959442138672 -70.91303253173828 31.105838775634766
-5.145923614501953 -75.97645568847656 30.486034393310547
-5.145915985107422 -75.9765396118164 27.71657943725586
-5.1459197998046875 -75.97654724121094 25.010265350341797
-5.1459197998046875 -75.9764175415039 22.359773635864258
-5.1459197998046875 -75.9765625 19.75835418701172
-5.145915985107422 -75.97653198242188 17.1993408203125
-5.145915985107422 -75.97655487060547 14.67681884765625
-5.145923614501953 -75.97642517089844 12.184910774230957
-5.145915985107422 -75.9765396118164 9.718268394470215
-5.145915985107422 -75.9765396118164 7.2715067863464355
-5.1459197998046875 -75.97647857666016 4.839498519897461
-5.1459197998046875 -75.97657775878906 2.4172897338867188
-5.145915985107422 -75.9765853881836 -1.33514404296875e-05
0.0 0.0 0.0
0.0 0.0 0.0
0.0 0.0 0.0
0.0 0.0 0.0
0.0 0.0 0.0
0.0 0.0 0.0
0.0 0.0 0.0
0.0 0.0 0.0
0.0 0.0 0.0
0.0 0.0 0.0
0.0 0.0 0.0
0.0 0.0 0.0
5.366706848144531 87.18317413330078 34.96894073486328
4.9110107421875 79.78019714355469 34.98152160644531
4.514080047607422 73.3320083618164 34.97226333618164
4.168125152587891 67.7119140625 34.974002838134766
3.8624649047851562 62.746368408203125 34.97722625732422
3.5890674591064453 58.30507278442383 34.973506927490234
3.342832565307617 54.304908752441406 34.9656982421875
3.1199989318847656 50.684974670410156 34.96010971069336
2.9168739318847656 47.38523864746094 34.955055236816406
2.7306156158447266 44.35929870605469 34.95057678222656
2.5591564178466797 41.57402038574219 34.95077896118164
2.397859573364258 38.95362091064453 34.91678237915039
2.2498703002929688 36.54957962036133 34.915931701660156
2.111661911010742 34.3043327331543 34.918968200683594
1.9817180633544922 32.19332504272461 34.92024612426758
1.8591890335083008 30.202861785888672 34.921939849853516
1.7432136535644531 28.31878089904785 34.92354202270508
1.6330547332763672 26.52928352355957 34.92506408691406
1.5280656814575195 24.823637008666992 34.92591094970703
1.4274787902832031 23.189701080322266 34.92129135131836
1.3310918807983398 21.62378692626953 34.91686248779297
1.2386283874511719 20.121662139892578 34.91771697998047
1.149632453918457 18.675983428955078 34.92311477661133
1.063436508178711 17.275741577148438 34.92328643798828
0.9799480438232422 15.919410705566406 34.924625396728516
0.8988442420959473 14.601896286010742 34.92631149291992
0.8198366165161133 13.318432807922363 34.92695236206055
0.7427210807800293 12.065702438354492 34.927574157714844
0.6672849655151367 10.840157508850098 34.92818832397461
0.5933146476745605 9.638524055480957 34.92878723144531
0.520632266998291 8.457767486572266 34.92937469482422
0.44906067848205566 7.295090198516846 34.93037414550781
0.3784451484680176 6.147862434387207 34.93224334716797
0.3085970878601074 5.013260364532471 34.93406677246094
0.23938381671905518 3.888824939727783 34.93546676635742
0.17064666748046875 2.77217173576355 34.936214447021484
0.10225117206573486 1.6611051559448242 34.93695831298828
0.03405877947807312 0.5533350110054016 34.93770217895508
-0.03406915068626404 -0.5534524917602539 34.944278717041016
-0.10227817296981812 -1.6615272760391235 34.9459228515625
-0.17070162296295166 -2.773085594177246 34.947574615478516
-0.2394775152206421 -3.890338659286499 34.948909759521484
-0.3087441921234131 -5.015587329864502 34.9501838684082
-0.37865734100341797 -6.151281356811523 34.95164489746094
-0.4493587017059326 -7.299936771392822 34.95351791381836
-0.5210223197937012 -8.464077949523926 34.955413818359375
-0.5937995910644531 -9.64641284942627 34.957313537597656
-0.667881965637207 -10.849802017211914 34.959228515625
-0.743438720703125 -12.077330589294434 34.961185455322266
-0.8206954002380371 -13.332268714904785 34.96318435668945
-0.899846076965332 -14.61817455291748 34.965232849121094
-0.9811186790466309 -15.938447952270508 34.966392517089844
-1.0647525787353516 -17.297088623046875 34.96639633178711
-1.1510591506958008 -18.69915008544922 34.96639633178711
-1.2403535842895508 -20.149723052978516 34.966400146484375
-1.3331623077392578 -21.657363891601562 34.97107696533203
-1.4295244216918945 -23.2227783203125 34.971046447753906
-1.5300407409667969 -24.855728149414062 34.97104263305664
-1.635209083557129 -26.564231872558594 34.9710578918457
-1.745595932006836 -28.357349395751953 34.971073150634766
-1.861811637878418 -30.245376586914062 34.971092224121094
-1.9846057891845703 -32.24025344848633 34.971107482910156
-2.1148223876953125 -34.355587005615234 34.971126556396484
-2.252227783203125 -36.587738037109375 34.95233917236328
-2.400300979614258 -38.99334716796875 34.95233917236328
-2.550006866455078 -41.42539978027344 34.82583999633789
-2.2758235931396484 -36.971107482910156 29.12942123413086
-2.909534454345703 -47.265968322753906 34.8670539855957
-3.121074676513672 -50.70235824584961 34.972076416015625
-3.3382492065429688 -54.23041915893555 34.917747497558594
-3.5885486602783203 -58.29657745361328 34.96839141845703
-3.8415451049804688 -62.40642547607422 34.78772735595703
-4.150478363037109 -67.42510986328125 34.82583999633789
-4.484661102294922 -72.85413360595703 34.7443733215332
-4.484661102294922 -72.85403442382812 31.94455337524414
-4.773845672607422 -77.55194091796875 31.105838775634766
-4.969520568847656 -80.73054504394531 29.439151763916016
-4.969524383544922 -80.73056030273438 26.564647674560547
-4.969524383544922 -80.7304916381836 23.749446868896484
-4.969512939453125 -80.73060607910156 20.986339569091797
-4.969520568847656 -80.73054504394531 18.268280029296875
-4.969520568847656 -80.73057556152344 15.588983535766602
-4.969512939453125 -80.73064422607422 12.94223690032959
-4.9695281982421875 -80.73045349121094 10.322245597839355
-4.969520568847656 -80.73052978515625 7.723430633544922
-4.969516754150391 -80.7305679321289 5.140278339385986
-4.969516754150391 -80.7305908203125 2.567523956298828
-4.969524383544922 -80.73049926757812 -1.430511474609375e-05
0.0 0.0 0.0
0.0 0.0 0.0
0.0 0.0 0.0
0.0 0.0 0.0
0.0 0.0 0.0
0.0 0.0 0.0
0.0 0.0 0.0
0.0 0.0 0.0
0.0 0.0 0.0
0.0 0.0 0.0
0.0 0.0 0.0
0.0 0.0 0.0
4.830684661865234 87.21566772460938 34.96940612792969
4.420452117919922 79.80908203125 34.98160934448242
4.0631866455078125 73.35888671875 34.972503662109375
3.7513694763183594 67.72915649414062 34.970333099365234
3.4759769439697266 62.75697708129883 34.97056579589844
3.2299137115478516 58.31452941894531 34.96661376953125
3.0083465576171875 54.3141975402832 34.95912170410156
2.8078460693359375 50.69435501098633 34.954010009765625
2.6250743865966797 47.39454650878906 34.9493522644043
2.4574947357177734 44.368919372558594 34.94559097290039
2.3034019470214844 41.5867805480957 34.948936462402344
2.1580753326416016 38.963050842285156 34.91268539428711
2.0251846313476562 36.56369400024414 34.91685485839844
1.9007740020751953 34.317527770996094 34.91984176635742
1.7837905883789062 32.20543670654297 34.920841217041016
1.6734952926635742 30.214122772216797 34.92240905761719
1.569101333618164 28.32932472229004 34.923980712890625
1.4699459075927734 26.539140701293945 34.92547607421875
1.3754396438598633 24.832847595214844 34.92631530761719
1.2849016189575195 23.19829559326172 34.921669006347656
1.1981353759765625 21.631771087646484 34.917213439941406
1.1148681640625 20.12838363647461 34.91682434082031
1.0348224639892578 18.683170318603516 34.92399978637695
0.9572305679321289 17.282363891601562 34.924110412597656
0.882072925567627 15.925318717956543 34.925025939941406
0.8090677261352539 14.607300758361816 34.92668151855469
0.737950325012207 13.323354721069336 34.92729187011719
0.6685385704040527 12.070149421691895 34.92788314819336
0.6006331443786621 10.844147682189941 34.928462982177734
0.5340533256530762 9.642059326171875 34.92903137207031
0.4686260223388672 8.460857391357422 34.929588317871094
0.4042074680328369 7.2978620529174805 34.93109893798828
0.34064388275146484 6.150175094604492 34.93285369873047
0.2777745723724365 5.015133857727051 34.93456268310547
0.21547234058380127 3.8902695178985596 34.935916900634766
0.15360164642333984 2.773193359375 34.9365348815918
0.09203559160232544 1.6617070436477661 34.93715286254883
0.030655473470687866 0.5535297393798828 34.937767028808594
-0.030668556690216064 -0.553652286529541 34.9442253112793
-0.09206026792526245 -1.6621167659759521 34.945770263671875
-0.15365064144134521 -2.7740654945373535 34.94731521606445
-0.21555101871490479 -3.8916893005371094 34.94851303100586
-0.27790021896362305 -5.017325401306152 34.94967269897461
-0.34082818031311035 -6.153383731842041 34.95103454589844
-0.4044671058654785 -7.302412509918213 34.95279312133789
-0.4689617156982422 -8.466911315917969 34.95457458496094
-0.5344719886779785 -9.649620056152344 34.95635986328125
-0.6011476516723633 -10.853376388549805 34.958160400390625
-0.6691536903381348 -12.081266403198242 34.95999526977539
-0.7386832237243652 -13.336557388305664 34.96186828613281
-0.8099327087402344 -14.622825622558594 34.96379089355469
-0.8831009864807129 -15.943889617919922 34.96575927734375
-0.9583940505981445 -17.303306579589844 34.966392517089844
-1.0360794067382812 -18.70586585998535 34.96639633178711
-1.1164531707763672 -20.156967163085938 34.96639633178711
-1.1999902725219727 -21.6651611328125 34.97108840942383
-1.2867250442504883 -23.231136322021484 34.97106170654297
-1.3772087097167969 -24.86467170715332 34.971046447753906
-1.4718694686889648 -26.573789596557617 34.971065521240234
-1.5712223052978516 -28.3675479888916 34.9710807800293
-1.6758308410644531 -30.25625228881836 34.97109603881836
-1.7863636016845703 -32.251834869384766 34.97111511230469
-1.903573989868164 -34.367958068847656 34.971134185791016
-2.0283355712890625 -36.620582580566406 34.97115707397461
-2.160541534423828 -39.00735855102539 34.95233917236328
-2.3036270141601562 -41.590816497802734 34.95233917236328
-2.047283172607422 -36.962623596191406 29.11227035522461
-2.622041702270508 -47.3397102355957 34.90888977050781
-2.809305191040039 -50.72062683105469 34.97209930419922
-3.004739761352539 -54.24900817871094 34.91716766357422
-3.230070114135742 -58.317195892333984 34.96818542480469
-3.4581165313720703 -62.434452056884766 34.79084396362305
-3.7358856201171875 -67.4493637084961 34.82583999633789
-4.046150207519531 -73.05122375488281 34.82583999633789
-4.304370880126953 -77.713134765625 34.062896728515625
-4.304370880126953 -77.71310424804688 31.15926742553711
-4.726352691650391 -85.33174133300781 31.105838775634766
-4.7697296142578125 -86.11508178710938 28.32626724243164
-4.7697296142578125 -86.11491394042969 25.324344635009766
-4.769733428955078 -86.1150131225586 22.378000259399414
-4.769733428955078 -86.11500549316406 19.479713439941406
-4.7697296142578125 -86.11509704589844 16.62275505065918
-4.769737243652344 -86.11490631103516 13.800447463989258
-4.769725799560547 -86.11514282226562 11.006778717041016
-4.769725799560547 -86.11502838134766 8.235600471496582
-4.769725799560547 -86.11512756347656 5.4811530113220215
-4.769737243652344 -86.1149673461914 2.7377824783325195
-4.769733428955078 -86.11499786376953 -1.52587890625e-05
0.0 0.0 0.0
0.0 0.0 0.0
0.0 0.0 0.0
0.0 0.0 0.0
0.0 0.0 0.0
0.0 0.0 0.0
0.0 0.0 0.0
0.0 0.0 0.0
0.0 0.0 0.0
0.0 0.0 0.0
0.0 0.0 0.0
0.0 0.0 0.0
4.294303894042969 87.24168395996094 34.968589782714844
3.9297256469726562 79.83495330810547 34.98169708251953
3.61187744140625 73.37747192382812 34.970115661621094
3.3342247009277344 67.73700714111328 34.96314239501953
3.0895004272460938 62.76519012451172 34.963905334472656
2.870786666870117 58.32204055786133 34.95987319946289
2.6738662719726562 54.321502685546875 34.95258712768555
2.495697021484375 50.701812744140625 34.94791030883789
2.333282470703125 47.40205383300781 34.94365310668945
2.1845226287841797 44.380035400390625 34.94310760498047
2.0475845336914062 41.59796142578125 34.94709396362305
1.9185543060302734 38.9766845703125 34.91366958618164
1.8004093170166016 36.57642364501953 34.91777801513672
1.6898059844970703 34.32941818237305 34.92071533203125
1.585801124572754 32.216552734375 34.921661376953125
1.4877347946166992 30.224252700805664 34.922882080078125
1.3949203491210938 28.33879280090332 34.92442321777344
1.3067741394042969 26.547992706298828 34.92588806152344
1.2227592468261719 24.841121673583984 34.92671585083008
1.14227294921875 23.206008911132812 34.92204284667969
1.0651416778564453 21.638952255249023 34.917564392089844
0.9910802841186523 20.134349822998047 34.91593551635742
0.9199638366699219 18.689659118652344 34.924888610839844
0.8509864807128906 17.288326263427734 34.924930572509766
0.7841510772705078 15.930623054504395 34.92543029785156
0.7192568778991699 14.612147331237793 34.92705535888672
0.6560354232788086 13.327770233154297 34.92763137817383
0.5943288803100586 12.07414436340332 34.928192138671875
0.5339570045471191 10.847719192504883 34.928741455078125
0.47476768493652344 9.645225524902344 34.92927932739258
0.4166083335876465 8.463716506958008 34.93015670776367
0.35934972763061523 7.3003692626953125 34.93182373046875
0.3028285503387451 6.152266025543213 34.93346405029297
0.24694538116455078 5.016822814941406 34.935054779052734
0.19155144691467285 3.8915746212005615 34.93636703491211
0.13654637336730957 2.7741103172302246 34.93685531616211
0.0818207859992981 1.6622532606124878 34.93734359741211
0.027254939079284668 0.553713321685791 34.93783187866211
-0.02726307511329651 -0.5538265109062195 34.944175720214844
-0.08183854818344116 -1.662645697593689 34.945613861083984
-0.13659310340881348 -2.7749390602111816 34.94705581665039
-0.19162344932556152 -3.892899513244629 34.948116302490234
-0.24704670906066895 -5.018866062164307 34.94916534423828
-0.3029792308807373 -6.155252456665039 34.95042419433594
-0.3595566749572754 -7.30460786819458 34.95206832885742
-0.41689157485961914 -8.469432830810547 34.953731536865234
-0.47512388229370117 -9.65246295928955 34.955406188964844
-0.5343918800354004 -10.856527328491211 34.957088470458984
-0.5948519706726074 -12.084744453430176 34.95880126953125
-0.6566553115844727 -13.340344429016113 34.96055221557617
-0.7199869155883789 -14.626920700073242 34.96234893798828
-0.785027027130127 -15.948304176330566 34.96418380737305
-0.8519878387451172 -17.308713912963867 34.96607208251953
-0.9210596084594727 -18.711875915527344 34.966392517089844
-0.9925136566162109 -20.1634521484375 34.96639633178711
-1.066777229309082 -21.672136306762695 34.97110366821289
-1.143874168395996 -23.238616943359375 34.97107696533203
-1.2243099212646484 -24.872669219970703 34.97105407714844
-1.308462142944336 -26.58233070373535 34.9710693359375
-1.3967885971069336 -28.37667465209961 34.97108840942383
-1.4897918701171875 -30.266002655029297 34.97110366821289
-1.5880498886108398 -32.26221466064453 34.97112274169922
-1.6922435760498047 -34.379005432128906 34.97114181518555
-1.80316162109375 -36.63237380981445 34.97116470336914
-1.921712875366211 -39.04094696044922 34.97118377685547
-2.0478954315185547 -41.60420608520508 34.95233917236328
-2.1851119995117188 -44.39179229736328 34.95233917236328
-2.3345718383789062 -47.42815399169922 34.96287155151367
-2.4974308013916016 -50.736961364746094 34.97212219238281
-2.6711292266845703 -54.26561737060547 34.91661834716797
-2.8714599609375 -58.33554458618164 34.96793746948242
-3.0744895935058594 -62.46017074584961 34.79398727416992
-3.3211402893066406 -67.4710464477539 34.82583999633789
-3.5969696044921875 -73.07472229003906 34.82583999633789
-3.9122314453125 -79.47932434082031 34.82583999633789
-4.098461151123047 -83.26280212402344 33.37371063232422
-4.2016448974609375 -85.35919189453125 31.105838775634766
-4.238292694091797 -86.10344696044922 28.31332778930664
-4.541545867919922 -92.26468658447266 27.124126434326172
-4.541561126708984 -92.26441955566406 23.96828269958496
-4.541553497314453 -92.26456451416016 20.864072799682617
-4.5415496826171875 -92.26460266113281 17.804065704345703
-4.541557312011719 -92.2645034790039 14.781207084655762
-4.541557312011719 -92.2645263671875 11.78896713256836
-4.541557312011719 -92.2645034790039 8.820867538452148
-4.541557312011719 -92.2645034790039 5.870666027069092
-4.541545867919922 -92.26469421386719 2.932352066040039
-4.541553497314453 -92.2645263671875 -1.621246337890625e-05
0.0 0.0 0.0
0.0 0.0 0.0
0.0 0.0 0.0
0.0 0.0 0.0
0.0 0.0 0.0
0.0 0.0 0.0
0.0 0.0 0.0
0.0 0.0 0.0
0.0 0.0 0.0
0.0 0.0 0.0
0.0 0.0 0.0
0.0 0.0 0.0
3.757892608642578 87.26702880859375 34.96883010864258
3.438831329345703 79.85779571533203 34.981781005859375
3.1600341796875 73.38337707519531 34.9630126953125
2.917125701904297 67.7423095703125 34.95595169067383
2.7030506134033203 62.77104949951172 34.95724105834961
2.511690139770508 58.32734680175781 34.953128814697266
2.3394107818603516 54.32675552368164 34.946048736572266
2.1835556030273438 50.70734405517578 34.941810607910156
2.041738510131836 47.413917541503906 34.942481994628906
1.9116268157958984 44.39234924316406 34.9428825378418
1.7917041778564453 41.60757064819336 34.945255279541016
1.6789436340332031 38.988861083984375 34.91465759277344
1.575540542602539 36.587764739990234 34.918704986572266
1.4787483215332031 34.34002685546875 34.921592712402344
1.3877391815185547 32.226463317871094 34.9224853515625
1.3019065856933594 30.233226776123047 34.9233512878418
1.220686912536621 28.347192764282227 34.92486572265625
1.1435518264770508 26.55584144592285 34.92630386352539
1.070023536682129 24.84845733642578 34.92711639404297
0.9995946884155273 23.212841033935547 34.92241668701172
0.9320974349975586 21.645309448242188 34.917911529541016
0.8672456741333008 20.139541625976562 34.915042877197266
0.8050622940063477 18.6954345703125 34.925777435302734
0.7447004318237305 17.29364013671875 34.925750732421875
0.6862044334411621 15.935325622558594 34.92583465576172
0.6294174194335938 14.61645793914795 34.92742919921875
0.5740909576416016 13.331683158874512 34.92797088623047
0.5200891494750977 12.07767391204834 34.92850112915039
0.46725893020629883 10.850882530212402 34.92901611328125
0.41546106338500977 9.648029327392578 34.92952346801758
0.3645758628845215 8.466325759887695 34.930999755859375
0.31446337699890137 7.302584648132324 34.93254852294922
0.26500678062438965 6.154115200042725 34.93407440185547
0.21609926223754883 5.018317222595215 34.935550689697266
0.16763067245483398 3.8927323818206787 34.93681716918945
0.1194918155670166 2.7749218940734863 34.93717956542969
0.07160007953643799 1.662739634513855 34.937538146972656
0.02384740114212036 0.5538713932037354 34.93789291381836
-0.02385842800140381 -0.5539820790290833 34.944122314453125
-0.07161760330200195 -1.6631191968917847 34.94546127319336
-0.1195288896560669 -2.7757036685943604 34.94679641723633
-0.16768038272857666 -3.893958330154419 34.947723388671875
-0.21617913246154785 -5.020213603973389 34.94865417480469
-0.26513004302978516 -6.15688943862915 34.94981002807617
-0.3146388530731201 -7.30653190612793 34.95133972167969
-0.3648033142089844 -8.471631050109863 34.9528923034668
-0.4157595634460449 -9.65493392944336 34.9544563293457
-0.4676241874694824 -10.85927963256836 34.956016540527344
-0.5205240249633789 -12.087756156921387 34.95760726928711
-0.5746011734008789 -13.343624114990234 34.95923614501953
-0.6300187110900879 -14.63046932220459 34.96090316772461
-0.6869301795959473 -15.952108383178711 34.962608337402344
-0.7455205917358398 -17.312772750854492 34.96436309814453
-0.8059921264648438 -18.717063903808594 34.96617126464844
-0.8685293197631836 -20.169174194335938 34.966392517089844
-0.9335145950317383 -21.67828941345215 34.97111511230469
-1.0009918212890625 -23.245216369628906 34.97108840942383
-1.0713768005371094 -24.879737854003906 34.97106170654297
-1.1450204849243164 -26.589889526367188 34.97107696533203
-1.2223148345947266 -28.38473892211914 34.971092224121094
-1.3036880493164062 -30.27458381652832 34.97111129760742
-1.3896684646606445 -32.2713737487793 34.97113037109375
-1.4808521270751953 -34.38876724243164 34.971153259277344
-1.5779190063476562 -36.642784118652344 34.971168518066406
-1.6816596984863281 -39.052024841308594 34.97118377685547
-1.7942066192626953 -41.66551971435547 34.993934631347656
-1.9121379852294922 -44.404380798339844 34.95233917236328
-2.044801712036133 -47.48503875732422 34.994876861572266
-2.1854629516601562 -50.75138854980469 34.972145080566406
-2.3374080657958984 -54.280033111572266 34.91599655151367
-2.5127429962158203 -58.35161590576172 34.9676513671875
-2.6909217834472656 -62.48951721191406 34.80046081542969
-2.9062652587890625 -67.49018859863281 34.82583999633789
-3.14764404296875 -73.09546661376953 34.82583999633789
-3.4235191345214844 -79.50186157226562 34.82583999633789
-3.7425308227539062 -86.91030883789062 34.82583999633789
-3.9875106811523438 -92.59861755371094 33.73439407348633
-3.9874839782714844 -92.5986099243164 30.44049835205078
-4.008110046386719 -93.0774917602539 27.355308532714844
0.0 0.0 0.0
0.0 0.0 0.0
0.0 0.0 0.0
0.0 0.0 0.0
0.0 0.0 0.0
-4.278453826904297 -99.35536193847656 9.496088027954102
-4.278453826904297 -99.35530853271484 6.320051670074463
-4.278446197509766 -99.35547637939453 3.156815528869629
-4.2784576416015625 -99.35511016845703 -1.71661376953125e-05
0.0 0.0 0.0
0.0 0.0 0.0
0.0 0.0 0.0
0.0 0.0 0.0
0.0 0.0 0.0
0.0 0.0 0.0
0.0 0.0 0.0
0.0 0.0 0.0
0.0 0.0 0.0
0.0 0.0 0.0
0.0 0.0 0.0
0.0 0.0 0.0
3.2214088439941406 87.29039764404297 34.969600677490234
2.9474258422851562 79.86693572998047 34.97718048095703
2.7082557678222656 73.38553619384766 34.955448150634766
2.5000877380371094 67.74501037597656 34.948760986328125
2.3166542053222656 62.774505615234375 34.95058059692383
2.152660369873047 58.33043670654297 34.94638442993164
2.005016326904297 54.3299560546875 34.93951416015625
1.871725082397461 50.718109130859375 34.94063186645508
1.7502460479736328 47.42657470703125 34.94322204589844
1.638711929321289 44.4041633605957 34.9435920715332
1.5358028411865234 41.61561965942383 34.94342041015625
1.4392738342285156 38.99993896484375 34.91600036621094
1.3506183624267578 36.597747802734375 34.91963577270508
1.2676372528076172 34.34932327270508 34.92247009277344
1.1896209716796875 32.23514175415039 34.92330551147461
1.1160354614257812 30.241310119628906 34.924095153808594
1.0464086532592773 28.354515075683594 34.92530822753906
0.9802827835083008 26.562681198120117 34.926719665527344
0.9172601699829102 24.854854583740234 34.927513122558594
0.8568792343139648 23.21879005432129 34.922786712646484
0.7990093231201172 21.650836944580078 34.91825866699219
0.7434024810791016 20.143978118896484 34.914154052734375
0.6901302337646484 18.70050621032715 34.926666259765625
0.6383857727050781 17.298303604125977 34.92657470703125
0.5882349014282227 15.939547538757324 34.926483154296875
0.53955078125 14.620203971862793 34.92780303955078
0.4921236038208008 13.335081100463867 34.92831039428711
0.445831298828125 12.080745697021484 34.92880630493164
0.40054845809936523 10.853638648986816 34.92929458618164
0.35614824295043945 9.650642395019531 34.93038558959961
0.312530517578125 8.46860408782959 34.93183898925781
0.26956868171691895 7.304528713226318 34.93327331542969
0.2271718978881836 6.155735015869141 34.93468475341797
0.18524646759033203 5.019622802734375 34.9360466003418
0.14369547367095947 3.8937361240386963 34.9372673034668
0.1024317741394043 2.7756290435791016 34.9375
0.06137508153915405 1.6631519794464111 34.93772888183594
0.020448029041290283 0.5540122985839844 34.937957763671875
-0.020450860261917114 -0.5541197061538696 34.94407272338867
-0.06139016151428223 -1.6635152101516724 34.94530487060547
-0.10246014595031738 -2.7763640880584717 34.94651412963867
-0.14373910427093506 -3.8948755264282227 34.94732666015625
-0.18531107902526855 -5.0213704109191895 34.948143005371094
-0.22726774215698242 -6.158298492431641 34.94919967651367
-0.26970767974853516 -7.308173179626465 34.95061492919922
-0.3127145767211914 -8.473512649536133 34.952049255371094
-0.35638999938964844 -9.657045364379883 34.9535026550293
-0.40084171295166016 -10.861612319946289 34.9549446105957
-0.44618654251098633 -12.090314865112305 34.95641326904297
-0.4925408363342285 -13.346409797668457 34.957916259765625
-0.5400385856628418 -14.633459091186523 34.95945739746094
-0.5888161659240723 -15.955312728881836 34.96103286743164
-0.6390485763549805 -17.316184997558594 34.96265411376953
-0.6908788681030273 -18.72068977355957 34.96432113647461
-0.7445573806762695 -20.17530059814453 34.96843338012695
-0.8002204895019531 -21.683624267578125 34.97113037109375
-0.8580665588378906 -23.250946044921875 34.97110366821289
-0.9184026718139648 -24.885862350463867 34.97107696533203
-0.9815311431884766 -26.59642791748047 34.9710807800293
-1.0477790832519531 -28.391719818115234 34.971099853515625
-1.1175432205200195 -30.28204345703125 34.97111892700195
-1.1912603378295898 -32.279319763183594 34.97113800048828
-1.2694091796875 -34.3972282409668 34.971153259277344
-1.3526134490966797 -36.651771545410156 34.97116470336914
-1.4415473937988281 -39.061607360839844 34.9711799621582
-1.5380172729492188 -41.67567825317383 34.99386215209961
-1.641042709350586 -44.46746063232422 34.99339294433594
-1.7528400421142578 -47.4967155456543 34.994876861572266
-1.8734378814697266 -50.76456832885742 34.97262954711914
-2.003629684448242 -54.2922477722168 34.91526412963867
-2.153949737548828 -58.36539840698242 34.967323303222656
-2.3080615997314453 -62.54154586791992 34.820865631103516
-2.4913063049316406 -67.50679016113281 34.82583999633789
-2.6982154846191406 -73.1134262084961 34.82583999633789
-2.9346961975097656 -79.52142333984375 34.82583999633789
-3.2081871032714844 -86.93168640136719 34.82583999633789
0.0 0.0 0.0
0.0 0.0 0.0
0.0 0.0 0.0
0.0 0.0 0.0
0.0 0.0 0.0
0.0 0.0 0.0
0.0 0.0 0.0
0.0 0.0 0.0
0.0 0.0 0.0
0.0 0.0 0.0
0.0 0.0 0.0
0.0 0.0 0.0
0.0 0.0 0.0
0.0 0.0 0.0
0.0 0.0 0.0
0.0 0.0 0.0
0.0 0.0 0.0
0.0 0.0 0.0
0.0 0.0 0.0
0.0 0.0 0.0
0.0 0.0 0.0
0.0 0.0 0.0
0.0 0.0 0.0
0.0 0.0 0.0
2.6847457885742188 87.31037139892578 34.97032165527344
2.4558334350585938 79.86587524414062 34.96944808959961
2.2565383911132812 73.38446807861328 34.947669982910156
2.0831222534179688 67.74515533447266 34.94157028198242
1.9303131103515625 62.77571105957031 34.94397735595703
1.7936534881591797 58.331295013427734 34.939640045166016
1.6709175109863281 54.33998107910156 34.93870162963867
1.5599117279052734 50.72980880737305 34.94142532348633
1.4586753845214844 47.43744659423828 34.943965911865234
1.365713119506836 44.414283752441406 34.944297790527344
1.279855728149414 41.622093200683594 34.941585540771484
1.1995429992675781 39.01012420654297 34.917850494384766
1.1256179809570312 36.6063232421875 34.92056655883789
1.0564727783203125 34.357330322265625 34.92334747314453
0.9914417266845703 32.24261474609375 34.924129486083984
0.9301166534423828 30.24827003479004 34.924869537353516
0.8720741271972656 28.36077880859375 34.92575454711914
0.8169689178466797 26.568523406982422 34.9271354675293
0.7644414901733398 24.86029624938965 34.92790603637695
0.714116096496582 23.223867416381836 34.923152923583984
0.6658916473388672 21.65555191040039 34.918601989746094
0.6195468902587891 20.148204803466797 34.914222717285156
0.575164794921875 18.70487403869629 34.927555084228516
0.5320396423339844 17.302305221557617 34.92739486694336
0.49024486541748047 15.943204879760742 34.927242279052734
0.4496626853942871 14.623403549194336 34.92817687988281
0.4101395606994629 13.337987899780273 34.92864990234375
0.37155628204345703 12.083368301391602 34.929115295410156
0.3338203430175781 10.856109619140625 34.92998123168945
0.29682445526123047 9.652915954589844 34.93134307861328
0.26046323776245117 8.470574378967285 34.93267822265625
0.22465848922729492 7.306200981140137 34.933998107910156
0.18932509422302246 6.157125473022461 34.93529510498047
0.15438008308410645 5.020736217498779 34.93654251098633
0.1197577714920044 3.894596576690674 34.937721252441406
0.08536601066589355 2.7762322425842285 34.93782043457031
0.051150381565093994 1.663508415222168 34.937923431396484
0.01703813672065735 0.5541253089904785 34.93802261352539
-0.017045319080352783 -0.5542325973510742 34.94401931762695
-0.051164984703063965 -1.66385817527771 34.94514846801758
-0.08539044857025146 -2.776921272277832 34.946231842041016
-0.11978721618652344 -3.8956353664398193 34.946929931640625
-0.15443658828735352 -5.022346496582031 34.9476318359375
-0.18940329551696777 -6.1594696044921875 34.94858932495117
-0.2247605323791504 -7.309536933898926 34.94989013671875
-0.2606081962585449 -8.475076675415039 34.951210021972656
-0.29700231552124023 -9.658792495727539 34.95254898071289
-0.33405017852783203 -10.863539695739746 34.95387268066406
-0.37183332443237305 -12.092418670654297 34.95521926879883
-0.410463809967041 -13.348672866821289 34.956600189208984
-0.45005369186401367 -14.635910034179688 34.95801544189453
-0.4906954765319824 -15.957906723022461 34.95945739746094
-0.5325469970703125 -17.31894302368164 34.960941314697266
-0.5757427215576172 -18.723581314086914 34.96247482299805
-0.6204977035522461 -20.179080963134766 34.96770477294922
-0.6668853759765625 -21.687744140625 34.97049331665039
-0.7151079177856445 -23.255786895751953 34.97111892700195
-0.7653884887695312 -24.89105224609375 34.971092224121094
-0.817997932434082 -26.601966857910156 34.97108840942383
-0.8732175827026367 -28.39763641357422 34.971107482910156
-0.9313516616821289 -30.288341522216797 34.97112274169922
-0.9927759170532227 -32.286033630371094 34.97113800048828
-1.0579204559326172 -34.404380798339844 34.97114944458008
-1.1272659301757812 -36.65940856933594 34.97116470336914
-1.201375961303711 -39.069732666015625 34.97117233276367
-1.2817707061767578 -41.68427658081055 34.99379348754883
-1.3676395416259766 -44.47679138183594 34.99345397949219
-1.4608078002929688 -47.50660705566406 34.994876861572266
-1.5613059997558594 -50.77497863769531 34.97251892089844
-1.6707096099853516 -54.3327751159668 34.93405532836914
-1.795541763305664 -58.39276123046875 34.976436614990234
-1.9249324798583984 -62.60053253173828 34.846466064453125
-2.076221466064453 -67.52081298828125 34.82583999633789
-2.2486648559570312 -73.1286392211914 34.82583999633789
-2.4457473754882812 -79.5379638671875 34.82583999633789
-2.6736717224121094 -86.94978332519531 34.82583999633789
0.0 0.0 0.0
0.0 0.0 0.0
0.0 0.0 0.0
0.0 0.0 0.0
0.0 0.0 0.0
0.0 0.0 0.0
0.0 0.0 0.0
0.0 0.0 0.0
0.0 0.0 0.0
0.0 0.0 0.0
0.0 0.0 0.0
0.0 0.0 0.0
0.0 0.0 0.0
0.0 0.0 0.0
0.0 0.0 0.0
0.0 0.0 0.0
0.0 0.0 0.0
0.0 0.0 0.0
0.0 0.0 0.0
0.0 0.0 0.0
0.0 0.0 0.0
0.0 0.0 0.0
0.0 0.0 0.0
0.0 0.0 0.0
2.1478309631347656 87.32257843017578 34.969261169433594
1.964324951171875 79.86180114746094 34.96171569824219
1.8049125671386719 73.38062286376953 34.93989944458008
1.6662330627441406 67.74274444580078 34.93437957763672
1.544036865234375 62.77482223510742 34.93754196166992
1.4347858428955078 58.332698822021484 34.934532165527344
1.33685302734375 54.35139465332031 34.940086364746094
1.2480144500732422 50.73957824707031 34.942222595214844
1.1670169830322266 47.44654083251953 34.94470977783203
1.0926456451416016 44.422725677490234 34.94499588012695
1.0238780975341797 41.626983642578125 34.93975830078125
0.9597263336181641 39.018829345703125 34.91970443725586
0.9005584716796875 36.613529205322266 34.92150115966797
0.8452415466308594 34.364051818847656 34.924224853515625
0.7932119369506836 32.248844146728516 34.92495346069336
0.744145393371582 30.254091262817383 34.92564010620117
0.6977033615112305 28.366043090820312 34.926292419433594
0.6536149978637695 26.5733642578125 34.92755126953125
0.6115865707397461 24.86479949951172 34.92829895019531
0.5713300704956055 23.228059768676758 34.923519134521484
0.5327529907226562 21.65945816040039 34.918941497802734
0.4956798553466797 20.152423858642578 34.91558837890625
0.4601612091064453 18.708524703979492 34.928443908691406
0.4256563186645508 17.30565071105957 34.928218841552734
0.39222049713134766 15.946261405944824 34.92799758911133
0.35975170135498047 14.626049041748047 34.92854690551758
0.32812976837158203 13.340397834777832 34.928993225097656
0.29726457595825195 12.085661888122559 34.92979431152344
0.2670779228210449 10.858296394348145 34.931060791015625
0.23747014999389648 9.654818534851074 34.93230056762695
0.20838403701782227 8.472217559814453 34.93352127075195
0.17974138259887695 7.3076043128967285 34.934722900390625
0.15146946907043457 6.158278465270996 34.9359016418457
0.12351393699645996 5.021661758422852 34.93703842163086
0.09581291675567627 3.8953089714050293 34.93815612792969
0.0682992935180664 2.776735305786133 34.938140869140625
0.04092353582382202 1.6637994050979614 34.938114166259766
0.013632595539093018 0.5542218685150146 34.938087463378906
-0.0136394202709198 -0.5543326139450073 34.9439697265625
-0.04093217849731445 -1.6641298532485962 34.94499588012695
-0.06831216812133789 -2.777369737625122 34.94594955444336
-0.09583663940429688 -3.8962552547454834 34.946533203125
-0.12355351448059082 -5.023127555847168 34.947120666503906
-0.15152263641357422 -6.160406112670898 34.947975158691406
-0.17981719970703125 -7.310640811920166 34.949161529541016
-0.20848608016967773 -8.47630500793457 34.95036697387695
-0.23760747909545898 -9.660165786743164 34.95158767700195
-0.2672462463378906 -10.865056991577148 34.952796936035156
-0.2974710464477539 -12.094061851501465 34.95402526855469
-0.32837486267089844 -13.350445747375488 34.95528030395508
-0.36003732681274414 -14.637775421142578 34.956565856933594
-0.3925609588623047 -15.95991325378418 34.957881927490234
-0.42603302001953125 -17.32103729248047 34.959232330322266
-0.46059131622314453 -18.72577667236328 34.96062469482422
-0.4964132308959961 -20.181995391845703 34.966800689697266
-0.5335102081298828 -21.690189361572266 34.968475341796875
-0.5720882415771484 -23.258949279785156 34.96992492675781
-0.612339973449707 -24.89529037475586 34.971107482910156
-0.6544246673583984 -26.60648536682129 34.97109603881836
-0.6986045837402344 -28.4024658203125 34.97111129760742
-0.745112419128418 -30.29349136352539 34.97112274169922
-0.7942638397216797 -32.291526794433594 34.971134185791016
-0.8463802337646484 -34.41023254394531 34.97114944458008
-0.9018516540527344 -36.6656379699707 34.97116470336914
-0.9611415863037109 -39.07637023925781 34.971168518066406
-1.0254573822021484 -41.69127655029297 34.99372482299805
-1.094167709350586 -44.48455047607422 34.99359893798828
-1.1686954498291016 -47.51469039916992 34.994876861572266
-1.2490901947021484 -50.783477783203125 34.972434997558594
-1.3366432189941406 -54.34272384643555 34.934513092041016
-1.4366092681884766 -58.406776428222656 34.978878021240234
-1.543844223022461 -62.76655197143555 34.93293380737305
-1.6610565185546875 -67.53228759765625 34.82583999633789
-1.7712860107421875 -72.01290893554688 34.288665771484375
-1.7712860107421875 -72.01290893554688 31.52562713623047
-1.7712783813476562 -72.01292419433594 28.83830451965332
0.0 0.0 0.0
0.0 0.0 0.0
0.0 0.0 0.0
0.0 0.0 0.0
0.0 0.0 0.0
0.0 0.0 0.0
0.0 0.0 0.0
0.0 0.0 0.0
0.0 0.0 0.0
0.0 0.0 0.0
0.0 0.0 0.0
0.0 0.0 0.0
0.0 0.0 0.0
0.0 0.0 0.0
0.0 0.0 0.0
0.0 0.0 0.0
0.0 0.0 0.0
0.0 0.0 0.0
0.0 0.0 0.0
0.0 0.0 0.0
0.0 0.0 0.0
0.0 0.0 0.0
0.0 0.0 0.0
0.0 0.0 0.0
1.6105194091796875 87.31097412109375 34.959991455078125
1.4729766845703125 79.85467529296875 34.95397186279297
1.3534431457519531 73.37400817871094 34.93212890625
1.2494850158691406 67.73820495605469 34.92741394042969
1.1578693389892578 62.771568298339844 34.93110656738281
1.076181411743164 58.3428955078125 34.9360237121582
1.0027294158935547 54.36074447631836 34.94147491455078
0.9360790252685547 50.747459411621094 34.94301986694336
0.8753204345703125 47.453819274902344 34.94545364379883
0.8195323944091797 44.429500579833984 34.9456901550293
0.7678985595703125 41.630332946777344 34.93792724609375
0.7198638916015625 39.026065826416016 34.92155838012695
0.6754741668701172 36.61936569213867 34.92243957519531
0.63397216796875 34.369476318359375 34.92510223388672
0.5949525833129883 32.25387954711914 34.925777435302734
0.5581426620483398 30.258758544921875 34.926414489746094
0.5233097076416016 28.370380401611328 34.92701721191406
0.490234375 26.577194213867188 34.92797088623047
0.45871639251708984 24.86838150024414 34.928688049316406
0.4285240173339844 23.231369018554688 34.92388153076172
0.3995828628540039 21.662527084350586 34.919281005859375
0.37180042266845703 20.15643882751465 34.91792297363281
0.3451499938964844 18.711490631103516 34.9293327331543
0.3192625045776367 17.308349609375 34.929039001464844
0.29418516159057617 15.94871711730957 34.92875671386719
0.26982641220092773 14.628140449523926 34.92892074584961
0.24611139297485352 13.3424711227417 34.92982482910156
0.22296905517578125 12.087678909301758 34.930992126464844
0.20032119750976562 10.860063552856445 34.93213653564453
0.17812061309814453 9.656366348266602 34.93326187133789
0.15629863739013672 8.47354507446289 34.934364318847656
0.13481378555297852 7.308717727661133 34.935447692871094
0.11361241340637207 6.159208297729492 34.9365119934082
0.09264016151428223 5.022401332855225 34.93753433227539
0.0718618631362915 3.895867109298706 34.93853759765625
0.051224589347839355 2.777125835418701 34.9384651184082
0.030693233013153076 1.6640307903289795 34.93830871582031
0.010222673416137695 0.5542938709259033 34.93815231323242
-0.010227590799331665 -0.5543969869613647 34.94391632080078
-0.03070145845413208 -1.6643397808074951 34.94483947753906
-0.051238179206848145 -2.777712345123291 34.9456672668457
-0.07187938690185547 -3.8967244625091553 34.946136474609375
-0.09266424179077148 -5.023712158203125 34.94660949707031
-0.11364912986755371 -6.161113739013672 34.947364807128906
-0.13486576080322266 -7.311448097229004 34.94843673706055
-0.15636491775512695 -8.477218627929688 34.94952392578125
-0.17821216583251953 -9.66118335723877 34.950626373291016
-0.20043325424194336 -10.866157531738281 34.951725006103516
-0.22311019897460938 -12.095246315002441 34.95283126831055
-0.24628400802612305 -13.35171127319336 34.95396041870117
-0.2700328826904297 -14.639115333557129 34.95512008666992
-0.2944197654724121 -15.961301803588867 34.95630645751953
-0.3195228576660156 -17.322484970092773 34.95751953125
-0.34543895721435547 -18.72726821899414 34.958770751953125
-0.3723001480102539 -20.183731079101562 34.9651985168457
-0.40012359619140625 -21.691802978515625 34.966453552246094
-0.4290609359741211 -23.260587692260742 34.96775817871094
-0.4592475891113281 -24.897174835205078 34.969120025634766
-0.4908313751220703 -26.60956382751465 34.97051239013672
-0.5239753723144531 -28.406219482421875 34.97111129760742
-0.5588645935058594 -30.297500610351562 34.97112274169922
-0.5957231521606445 -32.29579162597656 34.971134185791016
-0.6348094940185547 -34.41478729248047 34.97114562988281
-0.6764183044433594 -36.67048645019531 34.971160888671875
-0.7208881378173828 -39.0815315246582 34.971160888671875
-0.7691249847412109 -41.69671630859375 34.993656158447266
-0.8206653594970703 -44.49061965942383 34.993743896484375
-0.8765583038330078 -47.520965576171875 34.994876861572266
-0.936859130859375 -50.79008102416992 34.97235107421875
-1.0026741027832031 -54.357784271240234 34.9395751953125
-1.0775032043457031 -58.41448211669922 34.9788703918457
-1.1594371795654297 -62.85675811767578 34.978515625
-1.2503738403320312 -67.78657531738281 34.95233917236328
-1.3493309020996094 -73.15076446533203 34.82583999633789
-1.4252853393554688 -77.26871490478516 33.822017669677734
-1.3273696899414062 -71.96003723144531 28.81332015991211
0.0 0.0 0.0
0.0 0.0 0.0
0.0 0.0 0.0
0.0 0.0 0.0
0.0 0.0 0.0
0.0 0.0 0.0
0.0 0.0 0.0
0.0 0.0 0.0
0.0 0.0 0.0
0.0 0.0 0.0
0.0 0.0 0.0
0.0 0.0 0.0
0.0 0.0 0.0
0.0 0.0 0.0
0.0 0.0 0.0
0.0 0.0 0.0
0.0 0.0 0.0
0.0 0.0 0.0
0.0 0.0 0.0
0.0 0.0 0.0
0.0 0.0 0.0
0.0 0.0 0.0
0.0 0.0 0.0
0.0 0.0 0.0
1.0734291076660156 87.29641723632812 34.95085525512695
0.9817657470703125 79.84290313720703 34.945518493652344
0.9021186828613281 73.3646469116211 34.92436218261719
0.8328781127929688 67.73353576660156 34.92171096801758
0.7718944549560547 62.774227142333984 34.929283142089844
0.717498779296875 58.350914001464844 34.93751907348633
0.6685276031494141 54.368045806884766 34.942867279052734
0.6240787506103516 50.75356674194336 34.94392776489258
0.5835723876953125 47.459320068359375 34.94620132446289
0.5463848114013672 44.4345703125 34.946380615234375
0.5119495391845703 41.634490966796875 34.93812561035156
0.4799480438232422 39.03182601928711 34.92340850830078
0.4503345489501953 36.623809814453125 34.923377990722656
0.4226646423339844 34.373573303222656 34.92597961425781
0.3966484069824219 32.2576904296875 34.92660140991211
0.3721160888671875 30.262292861938477 34.927188873291016
0.3488912582397461 28.373661041259766 34.92774200439453
0.32683658599853516 26.580034255981445 34.92838668823242
0.30582427978515625 24.870996475219727 34.929073333740234
0.2856893539428711 23.23380470275879 34.92424392700195
0.2664012908935547 21.665420532226562 34.9206428527832
0.2478961944580078 20.15969467163086 34.920257568359375
0.23011016845703125 18.713727951049805 34.93022155761719
0.21285629272460938 17.31039047241211 34.92985916137695
0.19613218307495117 15.950569152832031 34.92951202392578
0.17989635467529297 14.630009651184082 34.930076599121094
0.16408443450927734 13.344243049621582 34.931148529052734
0.14865589141845703 12.08923625946045 34.932193756103516
0.13355588912963867 10.861427307128906 34.9332160949707
0.11875009536743164 9.65754508972168 34.93421936035156
0.10420417785644531 8.474552154541016 34.935203552246094
0.08987927436828613 7.3095550537109375 34.93617630004883
0.07574653625488281 6.159893035888672 34.93711853027344
0.061765193939208984 5.022943496704102 34.93803024291992
0.047904372215270996 3.8962740898132324 34.93892288208008
0.03415107727050781 2.777411937713623 34.938785552978516
0.020460128784179688 1.6641957759857178 34.938499450683594
0.006818324327468872 0.554347813129425 34.93821716308594
-0.006815016269683838 -0.5544477701187134 34.94386672973633
-0.02046680450439453 -1.6644936800003052 34.94468688964844
-0.03416335582733154 -2.7779595851898193 34.94538497924805
-0.04791867733001709 -3.8970518112182617 34.94573974609375
-0.06177806854248047 -5.024114608764648 34.94609832763672
-0.07576870918273926 -6.161591529846191 34.94675064086914
-0.08991146087646484 -7.311984062194824 34.94770812988281
-0.10424375534057617 -8.477819442749023 34.94868087768555
-0.11880683898925781 -9.661829948425293 34.94966506958008
-0.1336212158203125 -10.866846084594727 34.95064926147461
-0.14873409271240234 -12.095975875854492 34.951637268066406
-0.1641836166381836 -13.352462768554688 34.95264434814453
-0.18001079559326172 -14.639887809753418 34.95367431640625
-0.1962733268737793 -15.962084770202637 34.95472717285156
-0.21301651000976562 -17.323272705078125 34.955806732177734
-0.2302846908569336 -18.728044509887695 34.9569206237793
-0.24819469451904297 -20.184553146362305 34.96331787109375
-0.2667350769042969 -21.69258689880371 34.96443176269531
-0.2860288619995117 -23.26133918762207 34.96559143066406
-0.30615806579589844 -24.89788055419922 34.966800689697266
-0.32720088958740234 -26.610069274902344 34.967864990234375
-0.3493070602416992 -28.407451629638672 34.969322204589844
-0.37257957458496094 -30.30011558532715 34.97084045410156
-0.3971548080444336 -32.29885482788086 34.971134185791016
